X,Y,Z
777.4209206486468,-49.77133236255614,13.293794316597783
775.7946053198887,-49.298818663587184,13.011935351262872
699.2987490119577,-48.55964392258361,12.682103426473361
709.5732304399984,-47.85024900429688,12.239839955321107
709.1093597149872,-54.17704134441941,16.0472416337122
744.059354715339,-49.924581091787175,13.436117947160295
744.2290722152956,-52.33205913870796,14.884394542679452
719.6184027214056,-49.13301774717222,12.996566124433066
744.1404250818737,-49.82895960734626,13.378462619277968
726.5895098128866,-54.24130579017831,16.059648969620106
715.9546934452537,-50.42651765901398,13.780342991022408
705.601260770565,-51.59222408179205,14.497278601857733
782.6815381493802,-42.04495620546398,9.32039374463761
716.450188979417,-46.8777353174215,11.691917828426643
787.7047705476209,-46.71484848662877,11.706716937172855
771.8648699392311,-45.80155524624835,11.219631143034967
722.6662604606925,-45.886490483175145,11.195384662318242
761.5572908439091,-44.20723954530061,10.393139960110055
796.5481035280991,-47.37404978633239,12.05473390636122
776.7335959975247,-46.92844132599611,11.800490423258399
757.7701307517881,-48.026297645987874,12.333849561579163
795.2872486377199,-41.443465286187674,9.031219647567156
773.0940431617657,-43.43615173583618,10.016084827020226
735.7799812998569,-46.98956089116615,11.77542518081186
729.1073296944204,-38.950625449829175,7.953362937920038
702.4546285389814,-38.84053400459895,7.941931623577489
727.093778700993,-44.43774027942452,10.494957333481437
727.5295362618754,-41.91532917862875,9.327319648217378
776.0066421868622,-40.23390646732585,8.477561792311453
765.0626638481311,-42.043109096861485,9.330808458374566
705.5824932305804,-41.528609424799285,9.180932092567739
762.8001531956104,-40.12957548982604,8.448866695397989
722.9426541573112,-38.61809299157112,7.80865378439005
738.4705343794617,-43.953820589140356,10.254210523506304
765.8349008404684,-39.646493746861296,8.220871392845044
701.5581936793988,-43.21589209746626,9.967516797204171
756.1451234710755,-34.82638658235853,6.3410309285989115
771.5012504919009,-36.50834404825993,7.00763572068757
797.0735383063293,-32.87756401817851,5.648816963399884
789.7576296155578,-33.57515887892531,5.906612044704239
767.8754310544571,-37.56531178195769,7.408418261362892
783.6381976426349,-35.03050750462994,6.456914810576174
766.6370283697022,-39.382422981197436,8.104251489666401
782.760201519312,-36.7023970298657,7.097494626120492
776.6694832954985,-38.900620890318315,7.932999698198872
751.0727790783728,-37.176714859168044,7.236313543725501
788.4194134067902,-32.04673220526148,5.318077240825684
788.0575990471503,-38.339180313390514,7.733028087014334
739.4903102398225,-29.313614236874102,4.448027410708233
744.109957598554,-31.709060768946113,5.248370233226146
723.417882391574,-28.784793389356906,4.293425079515632
734.2787223785734,-34.638424936428,6.249810171938186
715.6714746954154,-32.074303625919185,5.413153915680748
709.8009529069391,-32.11741843261537,5.436292997035756
744.4731437779405,-33.17404434303617,5.741447819207072
726.1570442844064,-30.763113532524514,4.955980333491215
733.7726624774402,-30.311277646310025,4.792567059128559
700.5174031252064,-32.902168201947084,5.714324848891355
717.5976789246768,-35.414944774144324,6.535921107456343
743.2451408979296,-34.123494701539364,6.063156324508325
796.8923976872295,-25.168472160459814,3.3539106793933517
733.2688469718736,-27.521161450121834,3.897827364951226
767.9898512021678,-23.841737828855493,2.9591257028473343
737.7265093383317,-27.09832643393806,3.7905884473665927
787.8364642988772,-26.09283240785885,3.58928235917427
796.9109140534933,-21.241451106285265,2.301693908639237
789.782799771718,-23.589806636298274,2.9212444212881756
766.5043135463511,-27.506056818563085,3.938957536597642
781.4858137483318,-25.41852635704162,3.3999700982118832
725.4295575009647,-27.1438107873304,3.786060518638338
782.4750247539241,-22.615317698998705,2.650197379086509
707.0830355109047,-26.876230025769505,3.689423792333446
739.0839570778106,-21.943196980085855,2.5275411959182046
753.3119483172849,-19.725820348339408,2.018737526912676
736.0944074812393,-21.26335591523963,2.3822509664847447
732.273609891354,-20.58631666112523,2.23878812383135
702.5860415231228,-26.0499278350451,3.484657928016613
752.9846482635494,-20.875856452304298,2.2723562920222897
744.9884050234821,-22.406832928081307,2.6209957130422965
727.6907050122803,-20.689345050772054,2.268141105295837
780.4510141942869,-21.00436796104771,2.260640737564828
724.3495096225356,-24.5689415519194,3.1269710624557536
699.0032954179693,-25.807371036113494,3.4364851922442936
736.0557317210496,-18.25407724414458,1.7199150126543459
749.1980310951556,-14.888356876355552,1.181467674184326
713.0242759660056,-16.728309355705104,1.423856434855806
729.7894348771304,-16.83642743053509,1.4637047246837636
762.5956161805111,-14.293874311731518,1.1054704105497817
714.8266541692909,-16.680653999046715,1.4187515711205658
771.0808178623535,-18.596715780930968,1.7984748042941725
748.2793410734098,-14.982339124078653,1.1951077789618179
750.3679235979506,-16.29940428909977,1.4065413820316404
768.7181202514998,-14.532185964928903,1.1515139253030977
776.0825305667285,-18.497809304006967,1.7895890457340273
738.0919158955148,-15.805526534737858,1.3116794980811182
740.0479428321458,-10.832079202572963,0.6759973226467753
718.3048220337279,-14.721596536464233,1.1305398362836794
723.9407417932164,-9.760800174127512,0.5828474702828569
717.8986984409535,-11.269292835324897,0.7556681436497577
730.0802402507902,-6.974021457958605,0.27086347991449433
734.1725428445252,-8.090234971790185,0.38632433294743934
771.1678873692781,-10.985017684210849,0.6475000467831161
748.8283697995751,-8.43938656987492,0.4030428858512741
732.6679687095086,-8.25726985951583,0.4066724146364749
718.8475664920968,-11.924421226961897,0.8255415958948383
793.1147435428771,-10.17169012934037,0.5272178761715336
718.0818036024643,-7.809342339365054,0.37911030873401697
775.8379713188303,-2.06532982586607,0.0755366287781904
775.1766389525362,-4.142741953868186,0.1835140802953498
758.081039145278,-7.91630626296319,0.35813971675502415
753.8055262110809,-3.2105647439505915,0.10573546923128094
753.8571235653919,-3.940765023992167,0.14407347741300408
768.6061644017062,-6.265657303576722,0.28587837540714084
730.7586579006429,-4.930384561839911,0.16467402925481658
788.1182925364586,-5.784875411404154,0.28709085282274904
781.0260577702563,-3.408806660737631,0.1529672090652651
718.7997110928359,-4.919362411060179,0.14791024161227112
783.0190952295256,-8.715615887099478,0.4337828035405021
778.4312923821062,-2.102472001067214,0.08099316402555744
707.6047248385977,-2.2055184003473114,0.13380150665077767
781.4543473789228,-0.7403300050274522,0.026856744115836533
715.2265174096992,2.5900508060949643,0.12276406639626655
712.8036447569762,2.018176486146064,0.12627273078187515
767.7746060516657,-0.9815458551968161,0.046666956239589365
717.6353289372004,-3.465319621814799,0.11927576452093361
723.0561212202339,2.976880793870018,0.11142568589468613
707.5113753789968,-0.2575671720778292,0.13393668995228106
749.2259040746244,-1.4557741480935662,0.07352811625679727
741.6659664227275,0.3824093091175427,0.08447598178609783
703.6636089399735,-0.13402043814827058,0.1395088033085351
728.9962257222066,0.8057062096168319,0.10282356927520933
743.4662485218178,7.6078911195722965,0.3221956044114313
782.2559021011994,2.3812885268689694,0.10078183341133534
785.8061289101211,2.604390101244366,0.1172792355842422
720.7175616148338,4.795017489291387,0.1439893645042647
736.1581787002866,3.4421867713964738,0.09398901237858048
723.988182706317,5.383573372691519,0.17926097461900203
782.3944144454821,6.421896902787165,0.31272860357222615
779.0188803228942,6.09007689133707,0.2907699522112633
735.0717014832885,5.051720966065087,0.17687059902226276
797.3626361001407,4.75760170237483,0.2457657151046451
727.453990420291,6.828525575964166,0.25967859120726977
729.5745839343714,4.033515926176523,0.11606852396730166
732.2775121345799,12.387871376872024,0.8564686462245586
747.0272266341874,13.407422349819397,0.9459613689701246
705.2748799207046,12.025919587871286,0.8562634028569268
703.9819373887844,13.230315239548812,0.9891243575279037
777.6942162042201,10.33159157297947,0.5669711514193816
770.7622233706347,10.809437662052003,0.6289928650025356
727.6544295953088,13.384423104175799,0.9715546016715255
699.272253199312,8.549732851277055,0.48691035741090005
713.9573699992743,9.925352528858106,0.6152215656240754
754.3965481413038,10.582331869551895,0.6280272260646091
720.8590993279404,14.053215928801066,1.0541448353974041
726.0152740155833,9.089093813718524,0.5067865012901194
771.8347151939239,13.820191433246322,1.042969387823474
775.1577266537128,14.351614136366022,1.131642613317001
783.8986291354527,16.101688739410392,1.42067496693917
754.8603143578982,17.446112053894197,1.594251221994229
767.7165758619334,14.235697063538577,1.103197160676049
783.6091346124964,17.021601301700695,1.5659824393281698
792.9824096966598,13.134141015839148,0.962973959989111
781.2184212083607,16.401502431347296,1.4645279545916452
765.1741212390795,13.794278813073042,1.0298372359151773
730.5791040917758,16.345804583728036,1.3870680298813796
745.9032981312288,14.423928393062743,1.1034436222868407
784.9683515879457,11.43225427316714,0.6825590046194758
754.8074884773994,20.25685706632134,2.1334493778139327
704.0691110763423,21.427237278830933,2.4649668571112366
780.5397877471869,21.40410116919165,2.3484993713973537
727.0278801455878,22.771851446575432,2.7275007607944413
751.5549828639179,21.750723098213314,2.4670112104930215
708.4162156524258,18.475855291871444,1.808987306682039
717.2512952899353,19.238951427431243,1.964089706360022
752.0745792274776,22.237054495355494,2.5733040789754527
702.3157720805609,19.85767923162669,2.122034658210443
714.4183430529173,25.825377821319385,3.417997715158104
760.5146682671048,20.16211984835383,2.1042839837797045
723.8157632108469,19.668440013429247,2.0490665426541983
760.7712126458073,28.718907001714033,4.256146622175693
767.7375303932511,29.45948631129226,4.4640536314894455
719.5897011075185,27.004004379463737,3.740661310684626
775.82377679148,28.292985622424734,4.162482517662873
798.8660833364432,29.845737405090684,4.609862769430366
771.6745131367816,24.856301822692195,3.2359858728469995
726.1678274805599,27.53399604385914,3.891613866094028
783.0412448856571,26.034107464374884,3.567028850389751
745.978199017136,24.21754007902811,3.0299008416376374
788.7512940915931,24.697144181591383,3.2165524311799483
736.043051581397,27.356685481780065,3.8575271855710036
778.4563628771427,25.313433024936977,3.3676924536843442
701.3568859963461,29.738622312792096,4.6471707469653065
709.399163314959,33.195039155317936,5.799975071950879
721.069746248303,30.04325686714627,4.720895442112181
741.4649081241021,30.0895691052464,4.706580293906319
753.1524303737137,30.322962388821594,4.768074126321997
749.7269204204813,30.06676850404396,4.686777565059082
752.5019088068248,32.77152928372212,5.5940465808217805
706.185998387277,34.93195516382381,6.38992383329151
703.3944799226804,28.10386106077463,4.093366480664142
733.6473256593717,34.72207156071594,6.278920252154249
732.0968062379178,32.87237320989263,5.6579589906137215
726.4415719228762,30.11892277386399,4.738509821637173
717.015835299513,37.17523158410279,7.189255017581869
704.8247801611584,36.852104774666785,7.04857694630533
797.5825074423276,37.25760434503186,7.3308518319541
789.1875262802079,40.17776665417161,8.440337719758928
797.2338301418099,32.63603121250635,5.5563200027447905
794.0263797428329,32.23727678632057,5.398874202272363
717.4969875150716,36.805127250802784,7.047842054924664
736.7527247156822,37.21914200037905,7.23305232673836
786.0781077215306,39.86720171354677,8.316878511655768
722.0074648952682,37.403146074695556,7.2835569842380385
764.3151722990802,37.81156458106224,7.498085961110144
748.8829241679987,42.72020426751796,9.668046361740224
740.6388953700584,38.55896868945507,7.755072065438451
748.2357164233085,40.50462092537072,8.643967419051629
716.6849524784856,42.64381776215691,9.680427355268932
753.8195836334338,40.24060372055734,8.51354408805394
725.8167407134811,39.04070314560987,7.999914362559803
773.0751627324935,40.03369582767755,8.389279266613366
700.8143077106675,40.9627753003387,8.92621631461949
752.1245841200855,42.33124553815031,9.48329034146104
727.0620334322323,39.92368256023835,8.406578540213879
711.2647469068987,38.280028358742,7.6695564281873265
766.2461265333418,39.45708268294673,8.132631003763844
747.3733394386054,46.06723330929689,11.321387222628179
796.448611285155,47.547975958242006,12.14321716964092
798.0430026234676,41.63803463355356,9.13413984683634
787.5153747821284,45.634297003886786,11.155888509532993
739.0195651765941,45.63620851392898,11.09030389136476
752.9089354219366,47.44379898792772,12.030379867500526
790.8053303739468,46.32482931144364,11.512247633966293
797.03398844913,43.582687456304065,10.123605135486981
798.6173890776089,42.485846902571865,9.566910104441646
727.9205621697773,45.853427701901154,11.185749654882446
765.7984074501628,45.90639429735914,11.26472332869471
754.4873735709758,48.44995724856631,12.545209460304964
708.8987336455932,48.95706721357712,12.906803661939882
750.292698757645,49.95617292820393,13.445762175380654
735.560688082674,51.42553369603873,14.351978207541672
716.8263117644806,49.64124761125067,13.30655228064885
722.4616490108041,50.906133848271274,14.05914351270042
703.1653801840487,50.83842408465278,14.047391435539279
714.4954637163881,47.7117073493578,12.14908785015542
703.6769124212612,51.94745796009178,14.713906569535784
738.779943666001,50.780055331109104,13.95877066240022
715.0290213219605,50.347110843845584,13.733956070620756
700.1786489820635,55.11811180829446,16.626881002626725
749.7784431246159,49.70545615420629,13.295683423162462
787.1112037758379,58.079533370752586,18.62656584754362
746.5871761951894,55.541475280913744,16.92235435473943
738.981170221848,56.23026866428809,17.35915546672299
788.229930448884,57.92849392126868,18.530025036966258
769.4333075917577,56.713859920172794,17.71526804521353
791.86614495017,52.28616993680047,14.870880293672233
736.2796320011735,54.05820791263924,15.9448711472669
764.4684005758766,57.77583908424097,18.398067065527638
783.1239766857886,57.38171191557898,18.16788763085978
795.8526185801909,54.41000884615356,16.255623920214354
746.1722225798954,56.4101126664532,17.48588080793812
798.4485144185722,50.95879996542586,14.017968755842356
722.9231146845484,61.15043658218896,21.01914900432068
730.1704421969416,62.51820529922098,22.047825649869587
745.8859315521952,61.89434895960493,21.54957014117186
751.7115707146218,61.082301016827316,20.923366374684573
707.4490654342545,56.388048894745744,17.422521476022325
707.1816902806056,61.90394914880977,21.616006190534968
701.4993885067588,57.054838194711834,17.938492074116
751.3954564383988,58.69194416738869,19.10674829189435
712.0853247067867,60.73782006584379,20.722045857115766
754.1875887236423,58.42345079984117,18.898378805477762
786.0043909284858,59.19209064709422,19.43406881183519
699.6749372005555,59.75429575092804,19.99335296209506
790.4386359677985,64.96228942797502,24.092510110346836
772.5197491820336,62.17743734543419,21.812450560147624
725.8664039176508,64.67156491563566,23.76724502047
783.4319301778014,60.755330956686905,20.676034029517442
749.8079397061967,62.788977409087344,22.276066353332148
760.6040247175781,61.98140014005887,21.63712411595353
769.6182122609173,62.88505216975508,22.38142870613843
722.0459141207735,64.59557547663654,23.70039444413652
797.3997834767416,59.032069928577435,19.299998741381202
723.361791286954,65.13622085341723,24.140031209771116
794.3932395349776,59.21987002688278,19.447893163964554
771.4424668336458,64.24531481249379,23.485485701334596
765.867462342935,67.08527741415298,25.901902333676134
770.4739410009302,67.58217493752515,26.36540193269735
705.4938521897448,67.47337727956851,26.36372567340377
712.3581116879284,70.47883554109846,29.19993926316476
713.6649871474888,68.02920242919315,26.87748291984518
757.907422435548,66.94274470486825,25.779307400968015
730.6322086375924,69.58218088322272,28.322070882124198
726.4134901353971,69.36688671428146,28.12471534796777
791.826736998574,66.98728799550975,25.768579904193544
705.8309788622652,71.5275186814149,30.20348906934845
745.4935335529185,66.16390723007108,25.060921089627016
733.001227762076,67.87317876105519,26.69952079911882
768.867679686793,71.65918793833158,30.38800776162183
785.0465565841489,71.48355732153397,30.23505422157474
778.8705731400782,68.8986323222078,27.64147198922068
797.7881051949647,70.63334044147894,29.40269631340468
724.4926156294407,72.1944019594125,30.861023614265477
759.0216548147997,70.04678209177888,28.761800819272096
781.7844595884255,73.91174319945425,32.6586684071451
784.2065360138446,69.003186972799,27.75350581885627
770.566894712807,68.5933281471156,27.324528884990684
734.5929818889845,72.56224560231112,31.243024529830414
793.7715369496898,72.74926042812248,31.51298702263732
792.710847556133,72.74748244500995,31.509722323830083
729.4820620161329,73.27999013621567,31.98190727183574
769.505131512101,75.87275937350266,34.97029240011079
742.6294880651026,76.07206651277816,35.24795016554411
758.176648886654,74.40541213131755,33.26092961958269
739.9133113793081,75.60456490228245,34.70191215812239
727.5742055408051,77.90854918044629,37.43412071954938
716.4096742013609,77.72979165107802,37.24154031133486
718.5166121328667,74.36404952185275,33.27571093189144
745.2281437090847,73.83996136126848,32.615954132409726
747.5309830855134,75.12447199402945,34.124510884031444
725.351574263494,73.90363315586184,32.72272742067462
734.4258398115049,77.65396474490458,37.12343455694014
755.8069858463102,79.44895670480074,39.36511656447112
796.2954959346731,79.54571752019584,39.54174445383604
790.8148450779245,80.67692927424895,40.930939288749755
786.2575580041762,76.08945018719687,35.25944680621413
789.5778396730719,79.78887755101448,39.83254177559834
715.5792655081867,79.20437642610003,39.0063149933491
771.0625807171331,76.61841859568403,35.89122445796398
749.8391377697728,77.92428861710654,37.47388755932317
752.7809162692927,79.48886627450048,39.41013028734602
786.0584193606878,75.83457468552936,34.944420953022544
737.1896597020398,78.30164576111345,37.92203328224288
762.8973400056744,82.62734194890837,43.82787510646095
738.693664993194,80.23158751595464,40.33437102727567
768.7152661722415,81.85834286419897,42.68407778860539
707.9920741423306,80.36173405151085,40.5770248775532
732.9526697167607,80.36096467757585,40.53466909166032
719.6348355808659,80.66013067677636,40.99789980578878
756.0500794962137,81.46209791172504,42.12057578489842
704.4113713485548,85.04167706483679,47.48534103097974
737.8282631516198,82.20147212282819,43.241164001255925
778.4583543330884,81.18716886556297,41.67807955881338
771.5846225137901,81.3514081666579,41.93166610830467
767.3019833779483,81.63794991078124,42.361356305307865
758.9556765475155,81.52067531328925,42.202172596691504
785.314907946322,83.99893937618131,45.96998184217203
758.1659352038037,83.96764504242825,45.88329749814757
797.8608118231695,86.4663245072405,49.78721456620094
751.3874061387646,84.968524947514,47.41490741626299
793.153782357988,84.9036255784109,47.37419271044503
790.7804875115535,82.24432172819301,43.27585480452832
789.5193653498864,86.38173719009957,49.64513383685517
708.1787252348018,85.28353653739262,47.83871645452003
749.6210476964077,85.6025329796818,48.38869054002268
760.8209343476318,83.63036557605696,45.36769676139311
740.2415755994681,84.16478346105633,46.16144890697175
723.1258948454863,88.44941100312069,53.61558818845934
720.3150097035284,89.23381306750883,55.099952853555436
775.5695032453426,87.46549945255963,51.669670486674896
730.158557237136,88.06780894083666,52.88373347825024
717.8504479857831,86.34253918170154,49.650671643497134
748.3355616016289,86.89578370413709,50.64184530718288
704.2935131039861,86.00215050989239,49.03191389229037
707.4047541613567,88.36237434966729,53.478419187254346
705.0691929208174,90.10184614729549,56.76341776096269
737.1576466731259,86.86817861006955,50.60897348088229
740.7767574821607,86.81452984265282,50.50156588183805
778.4137383954262,86.83620164600721,50.477805823273506
769.2410779179667,88.52782296978721,53.72435733078902
842.633555857608,90.79610546031645,58.195632637124405
845.0683123930999,89.89846884299007,56.45014524243044
775.9476469839007,87.85917367988795,52.42786667054735
895.8916526904511,91.28672505676116,59.19119086022288
717.634188093265,90.3117801895885,57.15774726564449
857.2280105523569,90.14594179022939,56.94112707549795
833.149843738609,88.95588899914512,54.606251630065344
830.0510527691332,88.93967655844038,54.572334974127486
813.552723416947,90.18224149287536,56.97856058352562
767.6920396744545,88.26700563326018,53.21547173654442
775.63846654119,88.4094884031311,53.49887426367804
870.6974767123935,91.21830679789693,59.038840504173756
862.8475768879621,90.62598092126699,57.879846680567525
767.0498520661715,89.55317170580093,55.718634450300385
787.4930002267963,90.03432011382561,56.67079093341138
747.3318714273655,90.22135901062639,57.00432692313771
778.6015746354526,90.82233910299972,58.19798448159352
751.1560271767544,90.39125551462092,57.33795687157375
778.4837638416031,88.00629308918866,52.716178798599806
773.8284699171363,89.91481792570663,56.427772166442
791.833110612079,87.69577931678157,52.12188857493018
775.9205986470854,91.28896605222012,59.27462637701506
733.5792463277273,91.11951626498245,58.88785993050681
853.5710183130939,91.90057432988445,60.7390043907821
864.9756967675943,91.47054146538044,59.649327457251985
820.5262989491439,92.10064859192413,61.27121589244259
701.1387280507653,94.00574157048287,66.16125427868228
723.3066305812793,93.63298390205098,65.20553531100983
700.4556501536423,93.69788746252732,65.3892199657547
794.89137767122,92.31311799248475,61.82779569987041
736.2145822024019,90.9317782528621,58.41427539745392
698.9019779224009,92.46289082417687,62.29102478932189
753.8475456723353,91.83187395944329,60.65730406411674
771.2593332811773,92.70917904782311,62.8433337947186
757.6363269505775,91.28244686456364,59.274898784865286
786.4354934497683,92.70607423467293,62.82173460228249
836.411471606799,91.21472447833324,59.03326171797908
706.6834168518728,92.58122591947479,62.580944302114276
770.3395570331783,91.7018660491986,60.31600491951122
815.7163805683385,92.03676470322083,61.11525526191107
754.5344959863166,93.46852232734832,64.76435784327782
758.1879267268637,92.63882131105288,62.678641016190916
714.4421568385716,91.29186123815813,59.33782351065038
775.6742860808827,93.11329109505846,63.85356226277224
803.534418160176,92.16151189672576,61.439429879991366
787.7872681088598,93.35707598733714,64.46401727311276
899.5105660789816,94.65864636322279,67.9334636115249
874.9773878002062,91.9988728898004,60.987229464439736
880.5936126927986,92.6166252389379,62.60048682774114
844.8115432250484,92.44623754170127,62.13139314932269
714.2160300915077,94.73410768032512,67.99945364750516
739.1551350871524,94.41927206994094,67.19685601156047
724.049819672964,94.75965405511936,68.0729349317364
798.5109396122077,94.7588818505319,68.1234025571708
826.4294473488463,94.29270049042111,66.9286357995289
891.315429227249,92.10631443020495,61.27863896372813
860.9823703531379,94.53666366169993,67.58853376138632
858.7772408830476,94.55976736464746,67.64716678812226
805.324452043133,94.74516826076194,68.09247953176515
810.6055408332451,92.89400758274341,63.27376545472543
893.0138072726243,93.22154036331364,64.18509744783123
887.2436156256008,92.94183009265457,63.45236086986036
870.1217519898742,94.3070020968076,66.99668654171813
857.0407784233323,94.89306285388122,68.51420696804512
771.977921572841,94.14177442295238,66.49708337129803
894.8987297739689,92.98188624491071,63.562105894753344
822.6812857530895,94.35307844906137,67.08328402537964
856.6760242824488,95.00596609062816,68.80807273998438
871.3652482289338,95.46215195639834,70.41036670165542
700.916937101108,96.62390312933107,74.76171477619687
739.9874119930425,96.58494432749197,74.58309560183919
732.8832083097426,96.89351454864799,75.70143011165132
738.5610860580184,95.99209440055384,72.4492404415075
709.4950332904359,95.32451483845819,70.07332955205857
832.2503502456733,95.36828671788676,70.11064024809178
741.2711183733036,94.94351078412276,68.66992510347066
767.8373975981972,96.62339699594713,74.69428732119853
762.8537375354974,96.00668823712607,72.47798775742488
787.0586875747276,96.41205088053603,73.91424373958205
779.3148836696698,94.98900008193492,68.79646715524954
771.0225602304045,96.55116504562699,74.43100869978802
816.0753481886436,95.37987459615577,70.16823296718776
713.5024897082956,96.11347400202088,72.91097629679982
844.4373606018893,95.50836548578944,70.60321124157112
792.0821909326676,96.42025658867871,73.93887332241366
735.6388908553636,96.06498996421075,72.71465138684358
707.1067659051803,97.14050654778136,76.61628487322072
849.6803258703785,95.09796964493553,69.119958465195
812.2956646871784,95.4526058016352,70.43389257411643
749.3006245375628,95.77643793364541,71.66198733478691
756.8397772546892,95.82443552734802,71.82746822131075
711.6242163548981,96.74191288811178,75.17625097944837
803.7115887331537,96.59399517246987,74.58782151136964
803.3714574446029,97.06864926965245,76.35902697889038
860.9963740049657,97.1377914580697,76.65600233044498
889.8201771461248,96.24594086484359,73.34704083910285
884.3453242240564,96.92454318000615,75.8759231530226
861.0998151831882,97.7627216515449,78.9883461665208
750.6034969057588,97.1172061265796,76.50459244165717
740.9859280607567,97.68876721041619,78.63119205014776
864.6929053990602,95.59530540652948,70.9018567867599
836.8462380399042,97.03471140664509,76.25498543400238
796.0618673494818,96.68186694104878,74.91059544751084
867.7848548911697,97.13488108217103,76.64972712116236
810.3735579603119,97.27731410402366,77.14250645021473
886.3932380323218,95.97047539287132,72.31667317597137
767.903069115877,96.93897413677425,75.85110886627469
767.9616681798299,97.38778260747137,77.52612642288732
854.0847620069095,97.21097317869584,76.92445088331391
898.4592667729592,97.42971506056358,77.7707882191056
881.6272867771277,96.92504929316257,75.87597561850829
825.6178675790574,96.4735914173777,74.15326850801878
794.6232922894666,97.11467507273659,76.52488732673928
883.616399402406,97.3694561795458,77.53587052482948
742.4455803430269,97.60120263520619,78.30538240506765
740.9658162047872,97.42427850108092,77.64409201159573
877.1787128068613,97.86878409108462,79.56395011758438
724.3103676082084,98.53661420793473,83.80885238749347
728.6900398856613,98.04965765860061,80.83363942726254
825.2791025136562,98.03752526102829,80.65138920563423
741.2520830660452,97.75578585618109,79.02702193491005
707.5850670208818,99.08746912163406,87.18766383400357
816.3971665866482,98.40200217858921,82.88455478112192
819.955831414791,97.88220182700503,79.7099235002693
734.9267365325314,97.82877136643047,79.47930274608123
712.187412589743,98.16448103252938,81.55252553694436
734.9864640140038,98.4477353420384,83.25475054018725
715.7617473703831,98.07941651131549,81.02964900455443
705.1150715664921,99.00842249631015,86.70826864292873
839.236478657738,97.9975265655432,80.39176604794062
732.3187099850325,98.93586903756236,86.23522525757538
878.2041073037906,97.90014616889843,79.75410126203869
851.7430190402775,98.02719826899073,80.55873962147258
710.6778932175027,99.04665941253081,86.93526944008653
828.4443129984161,98.03297791703483,80.62010442178462
789.1058340734254,97.8896019529414,79.78963539557913
708.9715315429111,98.05176826844097,80.86861180453488
881.5186748896994,97.95260644369145,80.07038032583313
833.4403848465292,97.80797971699447,79.24207655085627
749.3079155735684,98.96490979573083,86.3933265813532
893.1206383415888,98.8730740944013,85.8867936389867
747.6626048442611,99.3571882625732,88.85905720024887
792.0420013999917,99.31813841890512,88.63823085104518
876.3343033630834,99.43710530283359,89.43821970185887
874.1291696889028,98.90356993425992,86.06832841382675
834.6835673182634,98.49851306508741,83.48803248402027
891.4754402741507,98.50856807404362,83.58443727815447
873.3681280663855,98.17998463978286,81.49934501558964
772.4776837775889,98.94775969528158,86.28840869088293
879.3885080061339,98.99196446903389,86.6294787131997
839.4168796345119,98.72746958024733,84.93635215950921
809.0868325002275,99.31555075889747,88.63177317735739
848.1842017584977,99.05366724756239,87.00096726100125
779.1323321222683,99.39534381790864,89.1182038344335
879.7129957754042,98.03814826495487,80.60750236394743
884.0704352866671,98.69275065093171,84.74302907302817
848.6446181412805,98.99188697502474,86.61116847142739
829.3346027322802,99.00748887753277,86.69848188563523
847.9261231659511,98.90547008181044,86.06513666112859
863.573410286562,99.0974229479009,87.28615064137924
846.8511200467686,98.27073643994214,82.05695908178191
882.3904724262912,98.6420099859049,84.42169100136732
832.2873109496527,99.33688235157605,88.77990404502978
837.820096014686,99.66796936057837,93.7798942230197
707.8722470101815,99.41957379919883,89.2813806207145
764.3474649557976,99.46446521533511,90.03316056423732
897.83015302493,99.45721690641864,89.64716732648823
887.6665457079137,99.53025123164761,91.05959668235202
758.1259171566892,99.48251647855861,90.38914180117888
883.763065324654,99.70226711405545,94.34907965037316
859.109033370877,99.45137323172803,89.60751421859064
790.0657209976473,99.4349474525976,89.42220899894292
895.2167644035015,99.8105197608632,96.39339807804026
756.7187659825239,99.47338417208404,90.21749909666156
887.6614585005066,99.87153235266946,97.57160049396091
833.387714516454,99.59909988432585,92.47401851640839
872.5958759471331,99.74658210868097,95.2153769049338
835.0473965375721,99.52882544798439,91.13003040534727
808.392295719995,99.62820862180973,93.07582417599357
802.537507983816,99.64092353658111,93.32930184934861
896.9429015622321,99.92698165410182,98.61240764827009
876.8909526615673,99.76346690226892,95.52958624504245
865.9122516037501,99.76481594798537,95.57569930191514
852.7482182309412,99.80848032168691,96.43328734843476
880.1536987857455,99.79162297414219,96.06077872725484
834.114618750773,99.59299240377189,92.35613268316965
858.7285678149951,99.90363261439435,98.222608393279
730.9810689393812,99.73469935114366,95.10681810478306
721.6860411047801,99.58725217138505,92.38731525544685
744.5519256330725,99.61728063407108,92.94115758711804
613.2916341209736,99.44913061846049,89.83981344938975
716.0489923931084,99.47003735575917,90.22541547817823
674.2650078271132,99.44314043040885,89.7293309464271
625.7117816914463,99.50845487572914,90.93398484650298
578.6811317482576,99.49969178736828,90.77235921347697
607.0916714254664,99.48101609150268,90.42790631717213
619.5927254077919,99.47895466543763,90.38988555565749
801.6742397223427,99.71455367324224,94.73525298875715
649.3134741724117,99.60641082508515,92.74067578368609
646.299396389341,99.54273387366156,91.56622367739955
661.1724014855158,99.52631791366527,91.26344915124312
694.0022899613297,99.45762587317995,89.99649918222819
702.5431142447096,99.47752284870766,90.36347725348995
736.487378406671,99.75137849545604,95.4144467793788
635.8664514712714,99.59794665982244,92.58456346206066
553.9567803636382,99.48118270679359,90.43097935498203
722.4940887928049,99.55874864021236,91.86159862683999
580.073020219806,99.46904074404168,90.20703405908418
719.9356530860355,99.70504763875869,94.55992452261611
654.8281936864357,99.6119612363355,92.84304708190312
592.6607395554113,99.99209041820066,99.83618917784383
562.1187177217515,99.5737906330951,92.13634769353091
464.5341395658745,99.84451592809812,97.11274762184794
564.4438972539299,99.89309196230622,98.01263160517715
624.2499554804879,99.87958473075336,97.76760744895459
572.6471508475397,99.74011310003804,95.19782787723138
496.51695378982737,99.89704994790941,98.08143747211537
432.7498284754515,99.74285244201243,95.23993330045008
744.9555247134664,99.87146869290993,97.62541435904551
678.2056901201355,99.93581820873413,98.80568367698567
562.0409005730027,99.72988334939559,95.0089385872
633.6597110936241,99.93433027674108,98.77565593529738
421.41288716076446,99.58589806160091,92.35080727994335
706.6289091325827,99.77331248250233,95.81675642952628
562.1534907760314,99.6905223737862,94.28457987854412
390.8540666666502,99.97054188060474,99.42764528758153
610.1967436800073,99.71759310291611,94.78561898680132
590.3617980785035,99.69216871188716,94.31655266346257
697.4999823194131,99.82344368155388,96.73878563954473
451.95316730854404,99.51599316630565,91.06615144482133
688.5994330956348,99.85958829851475,97.40343143567914
521.6366872616943,99.64631277013446,93.46857864679
530.6872130577443,99.46351390866243,90.10504372344
520.5519476767606,99.85222268035183,97.25790235335704
600.6367375251915,99.56553861650616,91.98677189672796
779.3224563979076,99.87253557120206,97.64708896342309
515.0255953652835,99.97791281149998,99.57066679996285
512.1050699990765,99.59611275032015,92.54417486150847
445.182418450302,99.67482800128963,93.98880849780184
369.441479015524,99.88438405648498,97.84079964463092
410.52143109507534,99.74856327805097,95.34371067832427
423.9981925393233,99.8826034719238,97.81127086542232
656.4488400965458,99.84635589734489,97.15800466262282
474.94601990511546,99.9479370113846,99.01663815548307
500.3940542444378,99.43188278512471,89.5211330510252
458.8336151438576,99.74372481122401,95.25753647711505
221.9828693888756,99.98704584122225,99.7213424023027
361.1690736981558,99.72853433670707,94.97218481540429
636.033992473587,99.7793895152319,95.92440098586647
722.5472459914498,99.89840141349039,98.11973028679397
383.99476210172486,99.90377709245898,98.19855649605411
521.4944839573386,99.80730538417251,96.43133920254994
851.8806329791428,99.93112875860658,98.7296958526265
288.3384220471699,99.94025268214455,98.86414169601261
779.6560789202744,99.98029420915731,99.63020566244177
378.63763555282463,99.67624235833804,94.0108856943315
799.5271654360242,99.96938514940217,99.43062468923098
435.101530492468,99.80340274987233,96.35438850494403
416.76555017850546,99.79381187840437,96.17679760635853
520.4949435587343,99.90231723883687,98.17979595003274
740.3029273207783,99.87809006608805,97.74699212151722
553.5232887048303,99.67877042510051,94.06779470777113
439.17300371605626,99.6790521158669,94.06618861639015
694.2674886058994,99.880009694935,97.77958574234094
528.1239256477805,99.7340986359316,95.08449909976288
580.2160569876013,99.99084010282041,99.81244049219494
527.3943902794585,99.69160407689677,94.30242262344608
331.4281218344339,99.98270814148825,99.64801394898362
480.6792812967444,99.66273031376781,93.76828089975115
330.8870390292367,99.78217944100771,95.95762483716884
806.2760384118243,99.86833955710068,97.57146963995987
513.9227460983809,99.69229662532027,94.31436774428612
362.04246185151266,99.83575803998491,96.9454890898264
553.5593627659432,99.62734045081172,93.12132402938492
562.9238267806887,99.95879916243065,99.22175989560449
644.1296968243528,99.78135553421389,95.96106262136591
873.6866395202185,99.96409957697585,99.33775714695956
333.88337723158463,99.90419768039303,98.20332103438687
602.2052140019873,99.62074792804351,93.0028895108808
437.62688172459883,99.86109492165164,97.41625535316976
395.2494460340829,99.67367253504878,93.96457929060766
311.36366425406567,99.78667368981246,96.03917381792205
208.0413248511959,99.99278629581052,99.82615692516603
511.1795536322851,99.82860066395796,96.82262663897919
537.9559255323162,99.7136076128618,94.70798383293157
420.4401326422653,99.56915817164492,92.04268304361766
620.5015490003885,99.72289716967079,94.8838423457687
319.36498378362637,99.79269461111542,96.1504527684797
438.07923319488486,99.74206480388605,95.225754747172
376.630902380385,99.99176867867877,99.81744037601382
417.4751372503451,99.94549296822267,98.9682474929323
596.8610159820672,99.59596475540637,92.54648407308136
555.0333077759116,99.69779814173052,94.41805403253456
315.5592374724098,99.94232309271968,98.90386010745657
424.0243873952965,99.54753129147788,91.6452231761691
484.8754390767997,99.42599173329042,89.41217700330213
352.72117928220507,99.48362514930872,90.47107569429825
267.2219044971431,99.82612936724553,96.76390532491826
267.83162497643013,99.65205652027505,93.5656650933065
398.5863013235167,99.4932501066871,90.64791502593894
288.9328546917244,99.60445212916679,92.69102966627943
359.77155060167354,99.60281578365624,92.66096509196079
399.8220881913537,99.58750825939356,92.37971996501923
361.87057726900736,99.4883581002839,90.55803419751388
434.730807116849,99.50572446923319,90.87710647568507
350.0030240512935,99.53542866428072,91.42286161959214
268.9354120471706,99.72970792768378,94.99235431875448
323.91318949701207,99.41964887462697,89.29563966784805
298.12777013993804,99.44781193393291,89.81307952641939
360.547086560581,99.65440671158987,93.60884515582556
359.72610122242816,99.52140573446889,91.16521834512528
440.4250869065785,99.4616602985126,90.06751551406272
332.66889450102906,99.71895387507736,94.79477012169409
279.8143508291716,99.60524543077477,92.70560499587627
283.53102353254144,99.58386921869783,92.31285987420023
304.9621360181817,99.58219400167046,92.28208111354414
437.1553268975274,99.46378615623709,90.10657389576589
295.98288109738735,99.74804781575985,95.3293130628034
273.26525580471184,99.46357248491842,89.75480631510638
224.66413965750363,99.72702370137515,94.46900679514053
266.17049599578763,99.47897386182352,89.93003149602183
244.56514760866284,99.51993937813093,90.33158750315576
199.603433662866,99.70573518780455,93.40406322148138
212.52330369618164,99.70714227294962,93.74022665452938
235.41040490064958,99.70013327987063,94.12434638225984
246.959717590369,99.70667767547646,94.54245966792786
212.16501523472468,99.77401241489716,95.21943334113094
192.99752303213165,99.68890162056124,92.87369216010687
190.5932060410797,99.59678401358033,91.12545085343568
225.58386950486747,99.171310674676,87.63948696575224
227.30203641128446,98.9611674748883,85.99306662269248
240.8625283082579,99.40478563519832,89.38553592383336
183.09512903096623,98.65805343269668,83.84415031008163
228.39493171508565,99.0079340899557,86.35233280881252
189.19419876764624,99.47280110727192,90.16575025415816
213.6072967666572,99.0346174575777,86.63189145385542
198.64330178561562,99.46487242757985,90.05822089123663
219.39898411415325,98.90572303097571,85.59910916258151
242.96175129474102,99.22472775479486,87.97179245342363
231.9242794873672,98.25215459959657,81.63892471079534
278.24877276031845,99.11534799042657,87.23831362631951
215.56590373726874,98.6091150822277,83.69829470570069
276.62751592300606,98.44044472731089,83.1098900240269
275.54312689783364,98.37511115988525,82.70355100102196
213.95495386190652,98.69466769032164,84.20852290345046
284.85283160797064,98.04941534589892,80.78404483260823
276.61917014914,98.21801568204407,81.75307213085874
268.2167357845826,98.66849954450792,84.44029619481009
275.93225053066374,98.19957184241221,81.6356148679376
274.74974737821617,98.08861920596897,80.95030402287298
251.44776944401835,98.19798717736836,81.44934148320365
250.36415092392502,98.80668609679142,85.1544259399461
287.76169949631947,99.01502403194728,86.69498135527262
250.82695850823586,98.31294584348365,82.14608067531007
170.1793955664919,97.3055197054852,77.25976232117429
202.7849562076677,97.81466279899897,79.51596293512334
171.38677908256028,97.29048183925235,77.18603944155637
246.8728231921379,97.33856853995127,77.1627830245701
273.4475404381779,97.7652376205588,79.05595641484052
212.84001064704057,97.8515449511922,79.65428980242544
266.70199574263137,97.72892555215516,78.90947221265286
180.03280230107805,97.28183173205161,77.11767747471632
175.0734579573383,97.04074255771636,76.01511409858739
196.53982992449912,97.12945315018307,76.35669761175197
260.8134175004396,97.42884130409658,77.53618095625895
234.53743661025243,97.49392917125809,77.9239839198086
268.87308332386414,95.19579850998925,69.51874939862876
256.2857238731654,96.91195756580422,75.65298999134411
291.65569862133935,95.10784088021582,69.28667607610578
248.42937214604504,96.50204926090609,74.1474176605415
227.62760236892274,96.57894010970303,74.34699818033914
257.9884720127167,97.14528495631403,76.49969168671905
275.54051070175467,96.28317740075295,73.45993013093377
279.48779565159566,96.96572892331855,75.9329384115272
281.2081262643419,95.84979082629016,71.92008817245735
270.37639374685796,95.82067186500677,71.77493120578406
230.33650397677906,96.39260466369373,73.68595182577651
265.95857503827773,97.1591790102141,76.5793719433178
277.697315142718,97.00969490847469,76.08463140232216
259.90529195227,96.97564885491995,75.89584545394621
220.10883907320755,96.3064076322989,73.33746447823992
260.4605823052213,96.07419818802819,72.65117704697221
164.295357460842,96.01551544654053,72.31335175188
148.494610753585,94.25555004439771,66.5972614714368
163.56932086038603,94.97115358499792,68.91036360997612
218.92051727302015,95.17751566939036,69.51215880937059
154.49729720974602,94.83400937818297,68.47497089198038
222.1456083710511,94.87924303217152,68.53586512457235
185.34989858518335,94.52227524439934,67.4194601360239
165.82060182663446,95.28616168476681,69.93419815903258
172.88716164411508,96.15666213304756,72.76240416646698
178.73752771239668,94.81577847088622,68.3845418256947
174.98336648261258,96.26669577817019,73.11835830012683
205.51315901196216,95.29587925319152,69.9150953985328
172.464473871962,96.37681851608156,73.48050653913003
190.02580504851028,96.2813652476358,73.14692831804349
262.40657384790353,92.69117871704273,62.819180372675035
240.32045184571734,93.70206278489903,65.32690388999596
279.4058263539581,93.20438974318225,64.12987558942102
186.19057868927231,93.91018700671472,65.77718943470514
280.3408024285227,93.6406286492809,65.22599777250596
194.5669228451473,93.52281155396211,64.81610213577858
199.01652923895531,93.83014210261373,65.59336793369964
288.1582746072617,91.7536975478582,60.50056453679586
243.15149713198065,92.1803053751268,61.51134896112073
267.2370964020376,92.22075212653053,61.64492957313207
265.65416846457384,93.08783492081471,63.81903639372166
275.5094695500377,92.0433265357953,61.21063840838891
234.72614542404807,92.33575742266274,61.890287005141445
206.61761829744805,92.931725920305,63.34863263006794
292.1889523222815,91.06694283832911,58.78230606573482
233.3552722222305,92.93374262689616,63.389291948774584
272.01387456124974,94.49727087597762,67.36492196437567
221.95272055945986,93.09824917913281,63.78699133111459
213.4069242871099,91.14789011845332,58.933217526134726
184.81598217722407,91.79081987756604,60.50967203139774
170.06487773065052,92.3561459150529,61.90140054992919
249.9967480088685,91.29607383792957,59.31965960229066
172.32447977873534,91.0728223470584,58.725390769867154
188.35207365125146,92.88562987306852,63.2220651539464
262.1038846986625,91.12934163666024,58.913344824603605
184.50012816117749,91.92562058918722,60.843239104628594
219.30989481817963,91.77864604043643,60.497983965198756
144.9203983446791,92.71923056839216,62.786865548723384
260.9912566916034,91.25473583554579,59.22319728982074
144.5316363537975,93.30336119491818,64.23283272215167
274.9470297558543,91.24565957396769,59.20819178989861
165.13722334909022,92.67684227420958,62.69273618343986
282.99083358594754,90.95819646588578,58.50080105995408
152.41403247307338,87.88783769202558,52.40032253846331
178.8978810817904,89.00506271735345,54.595368170222514
131.26349535883395,89.99236135330203,56.56087543895419
202.61384739724343,90.79055151383288,58.110112441610234
183.957025406982,90.01683696594716,56.590086609878085
160.37987097377174,88.34369959569949,53.296996999723255
141.68718041128335,87.74413890358692,52.120644867595644
204.12736459108774,89.87261247590837,56.298179799071036
209.27143029981107,89.44179832901389,55.446183746455205
139.94071789511406,89.60793533853726,55.799138059788945
136.22232713622049,89.80140155485091,56.182255067490765
156.01373730094062,89.35031043548649,55.28494047889893
159.28454316471147,89.13507399309793,54.8590260479922
145.16876160314527,90.70109508145245,57.95439467250389
188.24351656155307,89.16641023948473,54.91037269400184
212.9468682570423,89.02906633236863,54.63229918997583
159.19787520882178,87.68578440256519,52.02205623423181
295.1418836284096,88.68730231317122,54.10472457984795
177.78785443219712,88.31395760654104,53.233390346972904
292.8106798404415,89.81684843504333,56.23195171212211
182.28122396459372,88.38128692611122,53.36678607906436
243.01628494776247,89.25138510087056,55.09446034237528
224.54612965385417,88.34985579571656,53.36769326148142
269.1981692386785,87.28491798840341,51.422602334928555
213.866454263634,87.2069607371467,51.196757664317246
284.44097556684335,90.42206785628657,57.36159522291976
281.81462414073076,87.21142001376833,51.30193863724341
271.91424175335555,86.90563393396647,50.71106582220484
268.97295969754805,86.80441702613876,50.51596184283002
279.78704523334466,87.62985471578698,52.088301540383405
204.73922529161877,87.58844248368874,51.90330886764109
201.47159465266293,88.6383023493552,53.8788983427409
165.03220652009668,87.18069991047389,51.0776761772924
260.74248556424175,88.45183395379586,53.611594061693516
247.56779142018988,88.90228242333261,54.44246584394934
181.3479301554592,87.78369009684873,52.23827121139912
160.40889153930593,85.8377184947571,48.80889233008602
192.33191929103063,85.1102877808004,47.607276880824244
272.3964156210293,85.59431885678705,48.31800909989201
189.0533380325758,85.15685875721297,47.685288369873795
117.29252610389563,83.26027274299523,44.68827899411292
155.03402331877922,84.48713419295433,46.63459048638483
162.0380922000854,84.1011442986748,46.005698808191376
185.22068738783952,84.80860472101119,47.12678035375786
201.1138918452716,84.15375352794408,46.056317934269174
159.0680147846722,85.46609139425735,48.21048985676456
249.07695493631712,85.05096448375754,47.46181401253437
257.6184224767233,85.22857738112026,47.74088346679955
177.7767470171131,85.74554681275248,48.644956449046575
136.25341490398242,86.39123841123619,49.723112235604766
226.16069555372732,84.93037552442371,47.28734936649036
178.98972631665632,84.70788281030232,46.969740021052104
139.77308256999203,85.51467034930877,48.30578340032062
251.96032443380886,82.01595215003377,42.97067737782521
265.2059147287788,84.45373376733296,46.58454203274645
200.26526346994564,82.40793917430472,43.4769876739392
145.7038406520566,82.29254814666261,43.23098831401672
257.5825775212731,84.6883996721066,46.920056284060685
229.64828315912985,83.69912237199163,45.4221674915651
166.55478542736722,81.76592325626568,42.48324563975603
259.7926772142944,82.97256034967486,44.39245223163131
295.4322279392711,81.4018190742685,42.12530036496022
249.10060872426834,84.17473587679723,46.15067325329033
208.82448306752468,83.02820702311121,44.40370733115874
291.42671574406734,83.09156947275095,44.61193148318199
116.20450505346484,82.7251810166713,43.8280865766488
245.55727605868998,82.64940275688882,43.89605086824608
235.56949135304427,81.56799508233436,42.28721561232531
185.2632304604117,82.0578911149379,42.939860625802204
208.23733983114357,82.50006772814521,43.62394397312097
280.9066726986117,82.10399478784792,43.140750053696635
196.69320956781615,82.19110602738448,43.1522193742671
293.82411140894857,80.58705193755813,40.92137377810138
288.3934583653778,83.21259639013951,44.786218363921215
186.47537443147257,83.34110222224187,44.83414052440908
217.08225838943008,82.85698354900369,44.1626452276542
895.8046903369145,90.92795783383583,58.48911047127263
834.9895473365389,86.66383528501389,50.12030058403603
830.1326010721535,86.73316856554905,50.25637477914034
842.3692802147962,88.61390145678519,53.9475201051058
872.3661611748739,89.81399915816249,56.30284394815787
877.9592079375319,87.41697452937164,51.59841925498943
